ply
format ascii 1.0
element vertex 775
property float x
property float y
property float z
property float nx
property float ny
property float nz
property uchar diffuse_red
property uchar diffuse_green
property uchar diffuse_blue
end_header
0.053456 0.061779 0.028588 0.497643 0.072934 0.86431 0 0 0 
0.014867 0.06497 0.051895 0.491042 -0.17838 0.852677 0 0 0 
0.053502 0.059097 0.02864 0.549254 -0.093082 0.830455 0 0 0 
0.014051 0.077638 0.054334 0.2574 -0.024104 0.966004 0 0 0 
0.058876 0.054305 0.013845 0.943724 -0.329401 0.029671 0 0 0 
-0.017824 0.181133 -0.018287 0.813266 0.065498 0.578194 0 0 0 
0.01097 0.045001 0.044884 0.249895 -0.457805 0.85321 0 0 0 
0.055282 0.057687 0.026493 0.829418 -0.177318 0.529739 0 0 0 
0.055525 0.060424 0.026873 0.739608 -0.081899 0.668036 0 0 0 
-0.017955 0.179153 -0.017898 0.654492 0.096343 0.749906 0 0 0 
0.056099 0.058212 0.000521 0.798843 -0.193813 -0.569462 0 0 0 
0.013365 0.051482 0.048408 0.589416 -0.477801 0.651379 0 0 0 
0.055743 0.063112 0.026625 0.659477 0.076816 0.74779 0 0 0 
0.050969 0.049158 0.025438 0.630529 -0.538087 0.559371 0 0 0 
0.052962 0.054457 0.027807 0.63351 -0.35355 0.688235 0 0 0 
-0.036547 0.034445 0.035043 0.030262 -0.999204 0.026003 0 0 0 
0.053361 0.051017 0.00058 0.7158 -0.465105 -0.520872 0 0 0 
0.010986 0.04703 0.046659 0.611451 -0.579692 0.538595 0 0 0 
-0.024441 0.161992 -0.004488 0.194161 0.872612 0.448162 0 0 0 
0.011622 0.048005 0.047007 0.603479 -0.59413 0.531811 0 0 0 
-0.037423 0.078798 -0.019617 -0.116813 -0.328794 -0.937149 0 0 0 
0.020182 0.038712 0.041495 0.40995 -0.506697 0.758419 0 0 0 
-0.03743 0.080278 -0.020425 -0.369336 -0.525023 -0.766774 0 0 0 
0.060135 0.065524 0.008806 0.95099 0.167187 -0.260127 0 0 0 
0.01229 0.083785 0.053583 0.610383 -0.128944 0.781541 0 0 0 
0.034962 0.084427 0.039496 0.778244 0.004081 0.627949 0 0 0 
-0.074167 0.131357 0.051988 0.505224 0.224462 0.833286 0 0 0 
0.008992 0.058441 0.052901 0.369467 -0.126423 0.920604 0 0 0 
0.014451 0.05945 0.050067 0.40829 -0.06259 0.910704 0 0 0 
0.012042 0.055825 0.051827 0.615705 -0.223082 0.75574 0 0 0 
0.007228 0.11488 0.039638 0.289516 0.392596 0.872954 0 0 0 
0.010851 0.077081 0.054965 0.432785 0.084735 0.897506 0 0 0 
-0.048674 0.035011 -0.013421 -0.335589 0.551179 -0.763925 0 0 0 
-0.072737 0.133583 0.050532 0.454102 0.286098 0.843765 0 0 0 
0.036894 0.07096 -0.013467 0.641556 0.178258 -0.746077 0 0 0 
0.0151 0.095954 0.048477 0.380592 0.459079 0.802743 0 0 0 
0.012241 0.055356 0.051524 0.62068 -0.227932 0.750202 0 0 0 
0.042751 0.096783 -0.000483 0.933231 0.214239 -0.288414 0 0 0 
0.007397 0.116719 0.038555 0.245184 0.251373 0.936321 0 0 0 
-0.071496 0.133127 0.049975 0.517994 0.224377 0.825432 0 0 0 
-0.009197 0.043536 0.049094 0.353741 0.351206 0.866904 0 0 0 
0.020597 0.106362 0.041104 0.405686 0.654522 0.637981 0 0 0 
-0.070706 0.131725 0.049936 0.584634 0.317969 0.74639 0 0 0 
-0.070854 0.134545 0.049149 0.525955 0.264547 0.808323 0 0 0 
0.036805 0.066266 -0.013421 0.679102 -0.287228 -0.675515 0 0 0 
0.026785 0.048217 0.03789 0.547758 -0.15857 0.821473 0 0 0 
-0.047131 0.158393 0.008329 0.41572 0.356686 0.836631 0 0 0 
0.009894 0.072127 0.055304 0.446332 -0.096801 0.889617 0 0 0 
-0.067585 0.121913 0.052076 0.589196 0.095434 0.802334 0 0 0 
-0.069479 0.130784 0.049355 0.625385 0.375556 0.683996 0 0 0 
-0.069915 0.131729 0.049312 0.648329 0.27282 0.710801 0 0 0 
-0.070125 0.135016 0.048441 0.578855 0.210253 0.787858 0 0 0 
-0.070831 0.138792 0.04745 0.451452 0.352621 0.819664 0 0 0 
-0.056464 0.053028 0.006349 -0.943636 0.237765 0.230259 0 0 0 
0.038551 0.095851 0.032493 0.785159 0.298621 0.542541 0 0 0 
-0.037475 0.08908 -0.023733 -0.379482 -0.173085 -0.908865 0 0 0 
-0.079186 0.070678 0.007581 -0.620455 -0.758934 -0.197624 0 0 0 
-0.067468 0.116249 0.050451 0.57338 -0.505592 0.64468 0 0 0 
-0.068869 0.130306 0.049067 0.614113 0.37628 0.693743 0 0 0 
-0.056258 0.137588 -0.004241 0.681189 0.036714 -0.731186 0 0 0 
0.035052 0.057302 0.035889 0.719457 -0.417801 0.554819 0 0 0 
0.041917 0.064729 0.028258 0.608601 0.082098 0.789218 0 0 0 
0.045932 0.080259 0.01952 0.989905 0.068728 0.123952 0 0 0 
-0.01761 0.122946 0.030053 -0.384649 0.766114 0.514893 0 0 0 
-0.037152 0.090527 -0.023834 -0.151261 0.083298 -0.984978 0 0 0 
-0.033492 0.161919 -0.001774 0.234821 0.724078 0.648513 0 0 0 
0.016133 0.069522 0.052016 0.470037 -0.216118 0.855779 0 0 0 
-0.032809 0.164822 -0.004308 0.48249 0.411549 0.773195 0 0 0 
0.016187 0.071768 0.052118 0.59201 0.065561 0.80326 0 0 0 
0.014306 0.063577 0.05166 0.437569 -0.399591 0.805519 0 0 0 
0.013855 0.059888 0.05038 0.445385 -0.062832 0.893132 0 0 0 
-0.06622 0.119579 0.051122 0.740636 -0.165687 0.651157 0 0 0 
-0.066051 0.119107 0.050788 0.762806 -0.192165 0.617414 0 0 0 
-0.066406 0.123313 0.050871 0.71828 0.248317 0.649933 0 0 0 
-0.066842 0.126589 0.049643 0.661189 0.389648 0.641096 0 0 0 
-0.068022 0.13078 0.04792 0.706585 0.421337 0.568519 0 0 0 
-0.06883 0.13642 0.046796 0.672845 0.173704 0.719101 0 0 0 
-0.069022 0.137836 0.046529 0.60213 0.221699 0.767 0 0 0 
-0.063943 0.157249 -0.044273 0.857922 -0.461577 -0.225645 0 0 0 
0.04132 0.102344 0.000514 0.870078 0.381791 -0.311768 0 0 0 
0.018533 0.055919 0.048336 0.151996 -0.300546 0.941578 0 0 0 
0.042165 0.068774 0.028049 0.813373 -0.10251 0.57264 0 0 0 
0.042313 0.074695 0.028909 0.866971 0.018906 0.498001 0 0 0 
-0.068136 0.136413 0.046026 0.744341 0.126973 0.655618 0 0 0 
0.036553 0.079015 0.037659 0.826751 0.118506 0.549944 0 0 0 
0.035875 0.108252 0.027942 0.733744 0.427167 0.528345 0 0 0 
0.035775 0.107787 0.028432 0.719008 0.407127 0.563272 0 0 0 
0.036226 0.106903 0.028489 0.721867 0.398881 0.565511 0 0 0 
0.042251 0.077384 0.028846 0.893135 -0.02082 0.449306 0 0 0 
0.04235 0.084139 0.029046 0.825962 0.037575 0.562472 0 0 0 
0.056036 0.057179 0.025221 0.821665 -0.141187 0.552208 0 0 0 
-0.06515 0.117629 0.048573 0.789231 -0.359273 0.498034 0 0 0 
-0.065934 0.127488 0.048041 0.675578 0.459886 0.57628 0 0 0 
-0.067547 0.134506 0.045695 0.833979 0.153523 0.530009 0 0 0 
-0.067789 0.137352 0.045359 0.797052 0.175904 0.577724 0 0 0 
-0.068373 0.141618 0.044556 0.611245 0.376129 0.696352 0 0 0 
0.003289 0.040415 0.046023 0.164958 -0.031359 0.985802 0 0 0 
0.036364 0.078578 0.037972 0.76753 0.038377 0.639863 0 0 0 
0.036363 0.068226 0.037295 0.704646 0.082574 0.704738 0 0 0 
-0.037514 0.09669 -0.022616 -0.176936 0.254506 -0.950747 0 0 0 
-0.066419 0.132136 0.044944 0.814289 0.347001 0.465322 0 0 0 
-0.066476 0.144466 0.041469 0.715854 0.275035 0.641802 0 0 0 
-0.022146 0.162933 -0.015597 -0.053863 -0.611502 -0.789408 0 0 0 
-0.050809 0.144205 0.01404 0.863616 0.372005 0.340264 0 0 0 
0.036073 0.069121 0.037469 0.703676 0.099771 0.703481 0 0 0 
0.036377 0.07499 0.037955 0.768203 -0.050157 0.638239 0 0 0 
0.039768 0.078462 0.033484 0.869905 -0.079817 0.486718 0 0 0 
0.055828 0.067023 0.025013 0.560463 0.382984 0.734305 0 0 0 
-0.067274 0.112481 0.043984 0.488023 -0.835702 0.251864 0 0 0 
-0.065327 0.11469 0.044827 0.726866 -0.615329 0.305017 0 0 0 
-0.063856 0.119027 0.047022 0.881063 -0.261058 0.394433 0 0 0 
-0.063965 0.123239 0.047409 0.874716 0.155927 0.458866 0 0 0 
-0.064638 0.127898 0.045829 0.752859 0.443848 0.486007 0 0 0 
-0.066476 0.139221 0.043152 0.829131 0.093093 0.551248 0 0 0 
-0.038203 0.151245 -0.005318 0.302056 -0.813946 -0.49624 0 0 0 
0.039615 0.073061 0.033238 0.808115 -0.03294 0.588104 0 0 0 
0.02311 0.089341 0.048208 0.401202 0.196459 0.894673 0 0 0 
0.019713 0.118429 0.034548 0.324456 0.522464 0.788517 0 0 0 
-0.011728 0.172287 -0.02007 0.548877 0.516133 0.657526 0 0 0 
-0.013016 0.176199 -0.021333 0.637785 0.345901 0.688174 0 0 0 
-0.013322 0.177673 -0.021768 0.668749 0.299066 0.680687 0 0 0 
-0.066958 0.148256 -0.031028 0.389494 -0.910949 -0.135892 0 0 0 
0.030763 0.106544 0.035299 0.633741 0.291001 0.716723 0 0 0 
0.031608 0.102551 0.036507 0.503959 0.37134 0.779828 0 0 0 
0.031183 0.105654 0.035316 0.625917 0.328392 0.70738 0 0 0 
-0.037527 0.100951 -0.021766 -0.213404 0.270993 -0.938628 0 0 0 
-0.065995 0.137303 0.042673 0.856983 0.06506 0.511221 0 0 0 
-0.066087 0.142062 0.041969 0.81675 0.139305 0.559922 0 0 0 
0.021182 0.039006 0.040863 0.691368 -0.552765 0.465254 0 0 0 
0.051693 0.053534 0.028314 0.514444 -0.434822 0.739106 0 0 0 
-0.018606 0.105652 -0.022642 0.048656 0.164728 -0.985138 0 0 0 
0.006822 0.041782 0.045499 0.110054 0.104698 0.988396 0 0 0 
0.016635 0.077252 0.053412 0.426644 -0.026989 0.904017 0 0 0 
0.06093 0.063265 0.0108 0.983304 0.024108 -0.180366 0 0 0 
-0.047765 0.146756 0.008527 0.67556 -0.450116 0.583964 0 0 0 
-0.066483 0.112362 0.041947 0.534711 -0.817492 0.213988 0 0 0 
-0.063744 0.116581 0.044222 0.839674 -0.463337 0.283314 0 0 0 
-0.063023 0.118955 0.044708 0.887944 -0.299114 0.349409 0 0 0 
-0.062914 0.12319 0.045385 0.886854 0.118461 0.446607 0 0 0 
-0.065213 0.135849 0.041423 0.887005 0.023826 0.461144 0 0 0 
-0.066169 0.107907 0.038276 -0.16123 0.355596 0.920628 0 0 0 
0.05078 0.050635 0.02695 0.621695 -0.475016 0.62278 0 0 0 
0.036426 0.08393 0.037499 0.803233 -0.028318 0.594992 0 0 0 
-0.013481 0.171786 -0.018516 0.469185 0.471839 0.746481 0 0 0 
0.026723 0.097727 0.042897 0.580271 0.406656 0.705632 0 0 0 
0.034305 0.092484 0.039783 0.657829 0.216475 0.721387 0 0 0 
0.039704 0.077103 0.033359 0.837069 -0.064235 0.543314 0 0 0 
-0.066272 0.110362 0.037913 0.388342 0.024719 0.921184 0 0 0 
-0.062624 0.119402 0.044087 0.884493 -0.300841 0.356604 0 0 0 
-0.062366 0.123168 0.044404 0.862161 0.07177 0.501524 0 0 0 
-0.064875 0.136311 0.040732 0.896049 0.024569 0.443275 0 0 0 
0.035713 0.077699 0.038775 0.788577 -0.061943 0.611808 0 0 0 
-0.083663 0.078952 0.021818 -0.792653 -0.439779 0.422251 0 0 0 
-0.036523 0.099546 -0.022274 -0.149779 0.106278 -0.982991 0 0 0 
0.036323 0.092438 0.03743 0.755289 0.196867 0.625126 0 0 0 
0.012172 0.059878 0.051459 0.66814 0.134283 0.731818 0 0 0 
0.034469 0.088502 0.040579 0.793069 0.024553 0.608636 0 0 0 
0.057971 0.052843 0.009514 0.918504 -0.359322 -0.16504 0 0 0 
0.059011 0.066921 0.020815 0.835792 0.259801 0.48369 0 0 0 
0.034129 0.092048 0.040108 0.699755 0.264671 0.663545 0 0 0 
0.036448 0.085278 0.037544 0.800132 -0.045803 0.598072 0 0 0 
-0.061927 0.120788 0.043279 0.857455 -0.172011 0.484957 0 0 0 
-0.061859 0.124566 0.043353 0.825158 0.209403 0.524656 0 0 0 
-0.064345 0.135815 0.039726 0.880702 0.029333 0.472762 0 0 0 
-0.064321 0.14345 0.03925 0.753916 0.056393 0.654546 0 0 0 
-0.064508 0.142977 0.039556 0.807594 0.123158 0.576736 0 0 0 
0.016157 0.08168 0.05274 0.231351 0.377018 0.896847 0 0 0 
-0.018048 0.18642 -0.01798 0.687946 0.484832 0.540063 0 0 0 
0.008991 0.080638 0.055113 0.284052 0.037658 0.958069 0 0 0 
0.021901 0.042686 0.041345 0.564834 -0.063189 0.822782 0 0 0 
0.021919 0.046771 0.040805 0.5503 0.178948 0.815566 0 0 0 
-0.049491 0.140652 0.007065 0.985416 0.082976 -0.148558 0 0 0 
0.020618 0.118452 0.034101 0.445166 0.477562 0.757471 0 0 0 
0.016799 0.040274 0.043898 0.264209 -0.16975 0.94941 0 0 0 
0.033812 0.095119 0.039086 0.657583 0.334388 0.675107 0 0 0 
-0.063971 0.110063 0.037679 0.017771 0.28254 0.959091 0 0 0 
-0.061201 0.126442 0.041944 0.638911 0.26866 0.720843 0 0 0 
-0.062342 0.130638 0.040298 0.601938 0.419052 0.679755 0 0 0 
-0.062833 0.131565 0.040183 0.610225 0.390828 0.689114 0 0 0 
-0.063612 0.141527 0.038512 0.849355 -0.106293 0.517009 0 0 0 
-0.024293 0.166328 -0.00957 0.361164 0.606616 0.708221 0 0 0 
0.02376 0.044519 0.039961 0.628064 0.109685 0.770392 0 0 0 
-0.017893 0.159734 -0.011049 0.161259 -0.922577 -0.350495 0 0 0 
0.012493 0.069465 0.053777 0.471486 0.006115 0.881852 0 0 0 
0.0396 0.067671 0.033169 0.864376 0.062494 0.498948 0 0 0 
0.050666 0.046599 0.002604 0.632339 -0.689631 -0.352926 0 0 0 
-0.037202 0.103304 -0.020851 -0.168272 0.384642 -0.907599 0 0 0 
-0.020143 0.179651 -0.015791 0.759647 -0.080002 0.645396 0 0 0 
0.024224 0.058702 0.044864 0.642067 -0.230145 0.731289 0 0 0 
-0.038156 0.167752 0.002172 0.542578 0.029627 0.839483 0 0 0 
-0.063386 0.111406 0.037441 0.135887 -0.145456 0.979988 0 0 0 
-0.060457 0.121706 0.041824 0.57321 -0.178939 0.799632 0 0 0 
-0.060687 0.127841 0.040936 0.483038 0.359286 0.798491 0 0 0 
-0.060861 0.127374 0.041269 0.513365 0.386957 0.765977 0 0 0 
-0.062279 0.133429 0.038639 0.507733 0.496789 0.703852 0 0 0 
-0.063358 0.139111 0.037675 0.864435 -0.066598 0.498313 0 0 0 
-0.063089 0.140067 0.037484 0.844501 -0.215258 0.49039 0 0 0 
-0.063143 0.142003 0.038023 0.666408 -0.119954 0.735875 0 0 0 
0.053588 0.048206 0.00554 0.653151 -0.742162 -0.150298 0 0 0 
-0.027682 0.118614 0.030689 -0.317609 0.595673 0.737766 0 0 0 
0.030551 0.055938 0.03933 0.467963 -0.393387 0.791364 0 0 0 
0.046456 0.078794 0.010849 0.998832 0.04817 -0.003903 0 0 0 
-0.070513 0.144398 -0.016331 -0.378039 -0.884517 -0.273341 0 0 0 
0.021328 0.099301 0.045923 0.336146 0.4408 0.832287 0 0 0 
0.020459 0.101649 0.044969 0.413092 0.48511 0.770729 0 0 0 
-0.011402 0.165965 -0.01548 0.754363 0.421914 0.502918 0 0 0 
-0.061781 0.114827 0.03805 0.582226 -0.577421 0.572361 0 0 0 
-0.05963 0.121709 0.041257 0.524902 -0.182364 0.831397 0 0 0 
-0.059528 0.123137 0.041414 0.488368 0.014356 0.87252 0 0 0 
-0.059647 0.125033 0.041259 0.518001 0.171529 0.838005 0 0 0 
-0.060862 0.131568 0.038924 0.384013 0.409554 0.827526 0 0 0 
-0.061714 0.133423 0.038283 0.425025 0.495145 0.75775 0 0 0 
-0.062202 0.141517 0.037031 0.64818 -0.276547 0.709496 0 0 0 
-0.034327 0.059727 -0.012115 -0.382272 -0.472084 -0.794358 0 0 0 
0.045799 0.053069 0.032098 0.352687 -0.165406 0.921006 0 0 0 
-0.055226 0.037037 0.046904 0.046254 -0.233845 0.971173 0 0 0 
0.035698 0.079939 0.038776 0.819921 0.049456 0.570336 0 0 0 
-0.034453 0.067185 -0.016249 -0.72776 -0.483271 -0.486636 0 0 0 
0.023645 0.102536 0.042559 0.451046 0.481735 0.751325 0 0 0 
0.019366 0.05687 0.04839 0.32732 -0.213574 0.920461 0 0 0 
0.059527 0.068248 0.008805 0.899312 0.321392 -0.296556 0 0 0 
-0.017067 0.160663 -0.007852 0.681263 -0.461051 0.568606 0 0 0 
0.024492 0.069487 0.045316 0.735667 -0.315485 0.599386 0 0 0 
-0.062252 0.110589 0.037358 0.158466 0.396491 0.904258 0 0 0 
-0.060657 0.11484 0.037329 0.255076 -0.601445 0.757099 0 0 0 
-0.060517 0.115841 0.038132 0.246964 -0.650293 0.71842 0 0 0 
-0.058954 0.126453 0.040508 0.438713 0.226814 0.869532 0 0 0 
-0.059952 0.131592 0.038487 0.372866 0.423659 0.825521 0 0 0 
-0.061928 0.137644 0.03562 0.627043 0.366015 0.687641 0 0 0 
-0.061477 0.142977 0.036932 0.537411 -0.164242 0.827173 0 0 0 
-0.058233 0.057861 0.005848 -0.749383 -0.656762 0.084198 0 0 0 
0.055835 0.053422 0.023733 0.726826 -0.429414 0.53603 0 0 0 
-0.016733 0.166379 -0.012692 0.236884 0.665708 0.707615 0 0 0 
-0.043884 0.061339 0.039915 -0.557011 -0.130695 0.820157 0 0 0 
0.034646 0.100333 0.035063 0.681249 0.372442 0.630228 0 0 0 
0.034598 0.078626 0.040108 0.738942 -0.076831 0.669374 0 0 0 
0.024018 0.101241 0.043098 0.496718 0.448853 0.742834 0 0 0 
0.025559 0.074529 0.046317 0.812235 -0.337216 0.475983 0 0 0 
0.043317 0.099182 0.004838 0.919994 0.356671 -0.162469 0 0 0 
0.018893 0.066351 0.049525 0.477142 -0.258638 0.839906 0 0 0 
-0.023876 0.17668 -0.012415 0.77589 -0.2251 0.589342 0 0 0 
-0.021895 0.165878 -0.01019 0.273199 0.622622 0.733283 0 0 0 
-0.047904 0.134522 0.007077 0.89163 0.414844 -0.181384 0 0 0 
0.024564 0.066788 0.044825 0.537467 0.109857 0.836099 0 0 0 
-0.059531 0.115876 0.037795 0.285443 -0.646398 0.707596 0 0 0 
0.036311 0.104526 -0.00802 0.808143 0.4206 -0.412312 0 0 0 
-0.044025 0.147242 0.004079 0.588746 -0.763326 0.265916 0 0 0 
0.022152 0.118927 0.032796 0.51136 0.501336 0.697978 0 0 0 
-0.024407 0.159829 -0.012875 0.13572 -0.734521 -0.664875 0 0 0 
-0.02103 0.171743 -0.014205 0.460248 0.305201 0.833681 0 0 0 
-0.089595 0.139753 0.032516 -0.991641 0.097965 -0.083975 0 0 0 
0.021936 0.07594 0.04992 0.630684 -0.136694 0.763906 0 0 0 
-0.049196 0.115829 0.033085 0.206819 0.686907 0.696695 0 0 0 
-0.091813 0.142437 0.018836 -0.992851 -0.027339 0.116187 0 0 0 
-0.05794 0.116452 0.037753 0.282772 -0.628372 0.724699 0 0 0 
-0.057869 0.117435 0.038463 0.320926 -0.502692 0.802688 0 0 0 
-0.056668 0.122216 0.039689 0.479154 -0.245163 0.842797 0 0 0 
-0.059516 0.13484 0.036189 0.365381 0.574283 0.732595 0 0 0 
-0.059923 0.143452 0.035654 0.855129 -0.181689 0.485535 0 0 0 
-0.059639 0.144406 0.035472 0.860666 -0.144966 0.488098 0 0 0 
0.05665 0.05715 0.024343 0.799991 -0.134531 0.584736 0 0 0 
0.04532 0.0502 0.031361 0.501759 -0.410413 0.761445 0 0 0 
0.031013 0.061009 0.040636 0.434235 -0.165328 0.885498 0 0 0 
0.057492 0.066356 0.002756 0.758731 0.267127 -0.594113 0 0 0 
0.025838 0.077756 0.047366 0.768219 -0.150008 0.622364 0 0 0 
-0.022469 0.170258 -0.012779 0.439925 0.318131 0.839797 0 0 0 
0.021729 0.077294 0.050219 0.553738 -0.091959 0.827598 0 0 0 
0.019299 0.070448 0.050161 0.500808 -0.157289 0.851147 0 0 0 
0.024375 0.060071 0.045096 0.532392 -0.126999 0.836917 0 0 0 
0.024335 0.065449 0.045075 0.474256 0.085624 0.876213 0 0 0 
-0.057537 0.115941 0.03716 0.26862 -0.626639 0.731551 0 0 0 
-0.059592 0.138603 0.033739 0.449018 0.092053 0.888768 0 0 0 
-0.059176 0.14438 0.034351 0.933441 -0.114842 0.339852 0 0 0 
0.030687 0.072772 -0.020446 0.757626 -0.157701 -0.63335 0 0 0 
-0.049931 0.038453 0.045967 0.340968 0.21764 0.914535 0 0 0 
-0.050599 0.042536 0.045032 0.307778 0.502794 0.807756 0 0 0 
0.034151 0.076353 0.040021 0.663561 -0.231537 0.711391 0 0 0 
0.019599 0.051068 0.044525 0.434871 -0.681775 0.588278 0 0 0 
-0.051022 0.137515 0.001086 0.829114 0.216048 -0.515649 0 0 0 
-0.023168 0.176679 -0.013153 0.696535 -0.094694 0.711247 0 0 0 
0.018582 0.045369 0.042991 0.347431 0.350798 0.869616 0 0 0 
-0.044229 0.060747 0.039603 -0.538726 -0.100636 0.836449 0 0 0 
-0.055408 0.120311 0.037998 0.66375 -0.196257 0.721747 0 0 0 
-0.056123 0.128816 0.037573 0.675608 0.391903 0.624472 0 0 0 
-0.056276 0.130674 0.036777 0.559167 0.371203 0.74131 0 0 0 
-0.058729 0.146307 0.033896 0.928924 -0.157782 0.33497 0 0 0 
-0.049675 0.035679 0.045538 0.205836 -0.788165 0.580023 0 0 0 
0.014529 0.09183 0.051596 0.382884 0.344304 0.857236 0 0 0 
-0.023679 0.105504 -0.022726 0.059966 0.398757 -0.915094 0 0 0 
0.020809 0.066812 0.048197 0.584211 -0.280696 0.761517 0 0 0 
0.021019 0.068189 0.048516 0.485004 -0.298668 0.82193 0 0 0 
0.006182 0.081863 0.056103 0.291924 -0.244785 0.924587 0 0 0 
0.021077 0.082669 0.050505 0.325985 0.17796 0.928474 0 0 0 
0.017547 0.041248 0.043805 0.372904 -0.139267 0.917359 0 0 0 
0.01793 0.047122 0.042656 0.47209 0.2022 0.858048 0 0 0 
-0.019059 0.162991 -0.00783 0.167039 0.816498 0.552657 0 0 0 
-0.054868 0.120785 0.037617 0.683002 -0.194812 0.703958 0 0 0 
-0.054675 0.122205 0.037921 0.640835 -0.251229 0.725406 0 0 0 
-0.047434 0.037183 0.045445 0.21091 0.046375 0.976405 0 0 0 
-0.070174 0.125423 0.052586 0.398007 0.285077 0.871964 0 0 0 
0.020348 0.077738 0.051156 0.518319 -0.069076 0.852393 0 0 0 
-2.6e-05 0.129154 0.026463 0.006015 0.913554 0.406674 0 0 0 
-0.015022 0.167391 -0.014304 0.247454 0.670074 0.699834 0 0 0 
0.024493 0.111804 0.03617 0.269076 0.618498 0.73828 0 0 0 
0.023468 0.113563 0.03528 0.275128 0.484972 0.830125 0 0 0 
-0.071201 0.141876 0.046017 0.320294 0.493006 0.808923 0 0 0 
-0.091643 0.13324 0.014555 -0.833014 0.525384 -0.173374 0 0 0 
0.017464 0.044441 0.043699 0.273217 0.268658 0.923675 0 0 0 
0.017844 0.044006 0.043675 0.383366 0.197699 0.902189 0 0 0 
0.021777 0.081341 0.05033 0.395607 0.013434 0.918322 0 0 0 
-0.0545 0.117379 0.035733 0.686091 -0.333602 0.64652 0 0 0 
-0.053872 0.123115 0.037322 0.67919 0.044832 0.732592 0 0 0 
-0.053809 0.125035 0.036817 0.685378 0.200511 0.700037 0 0 0 
-0.054429 0.127386 0.036506 0.690288 0.267526 0.672259 0 0 0 
-0.057262 0.140521 0.031838 0.649817 0.337019 0.68129 0 0 0 
-0.05667 0.150102 0.031008 0.884872 -0.030005 0.464867 0 0 0 
0.032554 0.108276 0.032021 0.710461 0.414102 0.569004 0 0 0 
0.053915 0.067115 0.02621 0.360071 0.502319 0.786145 0 0 0 
0.056835 0.065723 0.024704 0.707925 0.273914 0.65101 0 0 0 
0.026009 0.083127 0.047067 0.529195 0.031457 0.847917 0 0 0 
0.015589 0.053912 0.048139 0.37569 -0.363065 0.852667 0 0 0 
-0.053033 0.121719 0.036164 0.661101 -0.143694 0.736408 0 0 0 
-0.055691 0.136262 0.032349 0.561837 0.541498 0.625395 0 0 0 
-0.056466 0.14292 0.031241 0.633858 -0.212419 0.743708 0 0 0 
-0.056888 0.149146 0.031255 0.877231 -0.131409 0.461733 0 0 0 
0.011581 0.050007 0.048739 0.505834 -0.591284 0.628104 0 0 0 
-0.01763 0.178168 -0.018027 0.651215 0.138477 0.746152 0 0 0 
0.031672 0.050071 0.034429 0.715372 -0.433495 0.54802 0 0 0 
0.027343 0.108323 0.037358 0.500283 0.316517 0.805936 0 0 0 
-0.026118 0.175194 -0.010388 0.747229 -0.286582 0.599599 0 0 0 
0.053324 0.065905 0.027167 0.306966 0.425692 0.85121 0 0 0 
0.021193 0.057371 0.04751 0.630407 -0.23135 0.740989 0 0 0 
0.022526 0.085338 0.049095 0.508254 0.302388 0.806374 0 0 0 
-0.052933 0.119303 0.035095 0.692426 -0.31087 0.651081 0 0 0 
-0.052325 0.1236 0.035432 0.77577 0.059571 0.628198 0 0 0 
-0.054555 0.134393 0.032824 0.591067 0.480988 0.647526 0 0 0 
-0.046737 0.036751 0.045295 0.265062 0.046856 0.963092 0 0 0 
-0.045099 0.040028 0.044179 0.392144 0.243091 0.887203 0 0 0 
-0.020703 0.170264 -0.013743 0.42236 0.385738 0.820255 0 0 0 
0.03402 0.069129 0.039189 0.64335 -0.026073 0.765128 0 0 0 
0.018822 0.05869 0.048778 0.137076 -0.057312 0.988901 0 0 0 
0.011163 0.114991 0.038209 0.220331 0.336587 0.915513 0 0 0 
-0.023437 0.169274 -0.011836 0.419892 0.413775 0.807763 0 0 0 
-0.020633 0.17619 -0.015355 0.628516 0.038508 0.776843 0 0 0 
-0.051814 0.120248 0.034379 0.662173 -0.273519 0.697649 0 0 0 
-0.053732 0.134863 0.031662 0.638839 0.473794 0.606138 0 0 0 
-0.055233 0.140046 0.03006 0.697374 0.356258 0.621892 0 0 0 
0.032151 0.04586 0.030753 0.520456 -0.384448 0.762447 0 0 0 
-0.037638 0.156831 -0.010665 -0.105034 -0.543718 -0.83267 0 0 0 
-0.032529 0.170746 -0.003862 0.789116 -0.352782 0.502832 0 0 0 
0.042749 0.068738 0.027129 0.834516 -0.04301 0.549302 0 0 0 
0.001946 0.040887 0.046298 0.228752 0.021686 0.973243 0 0 0 
-0.090208 0.137369 0.014865 -0.973313 0.004463 -0.229439 0 0 0 
0.025703 0.084024 0.04723 0.529377 0.020649 0.848135 0 0 0 
-0.001809 0.043197 0.046794 0.310873 0.273031 0.910391 0 0 0 
0.021753 0.100359 0.045091 0.464752 0.477938 0.745373 0 0 0 
-0.014626 0.042405 0.051257 0.361524 0.15607 0.919207 0 0 0 
0.02387 0.090685 0.047557 0.424023 0.189511 0.885602 0 0 0 
-0.051179 0.122147 0.034139 0.781351 -0.043143 0.622599 0 0 0 
-0.051525 0.129247 0.033096 0.666636 0.287634 0.68765 0 0 0 
-0.054726 0.143376 0.029084 0.919726 -0.154529 0.360866 0 0 0 
0.029763 0.071779 0.041844 0.522316 -0.360843 0.772643 0 0 0 
0.035739 0.089807 0.038905 0.805048 0.06703 0.58941 0 0 0 
0.033885 0.063764 0.039558 0.60632 -0.055681 0.793269 0 0 0 
0.019228 0.066808 0.04943 0.585568 -0.177108 0.791039 0 0 0 
0.016977 0.093134 0.048691 0.699845 0.321684 0.637759 0 0 0 
0.025958 0.086709 0.047024 0.503862 0.187205 0.843254 0 0 0 
-0.019376 0.168802 -0.013585 0.353516 0.518389 0.778652 0 0 0 
0.02409 0.099055 0.04437 0.517603 0.434353 0.737173 0 0 0 
-0.050434 0.124986 0.032894 0.729065 0.04059 0.683239 0 0 0 
-0.053977 0.140019 0.028355 0.851673 0.275981 0.44552 0 0 0 
0.027532 0.081325 0.045733 0.709326 -0.024663 0.704449 0 0 0 
-0.071538 0.171984 -0.034504 0.170684 0.950439 0.259871 0 0 0 
-0.042839 0.040421 0.043346 0.247851 0.175411 0.952786 0 0 0 
0.00818 0.072136 0.055955 0.274112 -0.161074 0.948113 0 0 0 
0.033722 0.061494 0.039289 0.59568 -0.154287 0.788264 0 0 0 
-0.0153 0.173233 -0.018216 0.456107 0.341019 0.821993 0 0 0 
-0.024459 0.172226 -0.012126 0.612584 0.158007 0.774452 0 0 0 
-0.020674 0.162047 -0.006056 0.148468 0.821929 0.5499 0 0 0 
-0.01586 0.174709 -0.018431 0.527891 0.303727 0.793146 0 0 0 
-0.016111 0.17817 -0.019353 0.618629 0.232517 0.750489 0 0 0 
0.017578 0.090933 0.048967 0.805084 0.268104 0.529112 0 0 0 
-0.020845 0.179651 -0.015046 0.737571 -0.15154 0.658046 0 0 0 
0.040507 0.097892 0.027536 0.850618 0.316714 0.419691 0 0 0 
-0.049977 0.12499 0.032398 0.740386 0.040631 0.670953 0 0 0 
-0.04978 0.126414 0.032098 0.789465 0.064426 0.610404 0 0 0 
-0.049995 0.125942 0.032383 0.74138 0.007905 0.671039 0 0 0 
0.05213 0.045691 0.014543 0.618865 -0.781431 0.07982 0 0 0 
0.03507 0.073204 0.038988 0.649529 -0.095576 0.754306 0 0 0 
0.03567 0.071828 0.038079 0.706547 -0.212456 0.675022 0 0 0 
0.03447 0.052895 0.033219 0.714 -0.415626 0.563436 0 0 0 
-0.032264 0.166294 -0.005272 0.539196 0.287485 0.791593 0 0 0 
0.042821 0.073292 0.027842 0.885332 -0.071402 0.459444 0 0 0 
0.027342 0.076362 0.045416 0.55879 -0.279917 0.780641 0 0 0 
0.058941 0.054794 0.010842 0.937738 -0.321487 -0.131502 0 0 0 
0.029546 0.084411 0.043382 0.539661 0.043488 0.840759 0 0 0 
-0.016629 0.180636 -0.019486 0.707725 0.088501 0.700923 0 0 0 
0.022156 0.104255 0.042155 0.496308 0.550677 0.671143 0 0 0 
-0.04924 0.121636 0.031653 0.922691 0.089267 0.375064 0 0 0 
-0.049346 0.123047 0.031479 0.927516 0.139802 0.346655 0 0 0 
-0.049459 0.12734 0.03138 0.81723 0.249805 0.519357 0 0 0 
-0.061618 0.167289 -0.05525 0.980196 -0.111069 0.163948 0 0 0 
0.026832 0.105633 0.038361 0.407943 0.301064 0.861942 0 0 0 
-0.019993 0.165866 -0.010966 0.288729 0.649755 0.703175 0 0 0 
-0.066591 0.153093 -0.047357 0.707505 -0.602359 -0.369595 0 0 0 
0.037968 0.101122 0.029872 0.81516 0.317369 0.484552 0 0 0 
0.035646 0.085758 0.038733 0.834746 -0.096574 0.5421 0 0 0 
0.02412 0.046786 0.039297 0.551244 0.10867 0.827237 0 0 0 
0.051275 0.055867 0.029487 0.489343 -0.179415 0.853436 0 0 0 
0.036544 0.102926 0.030736 0.733609 0.393459 0.554083 0 0 0 
0.024393 0.047245 0.03911 0.437873 0.009116 0.89899 0 0 0 
0.03373 0.059667 0.038693 0.676013 -0.26974 0.685746 0 0 0 
0.026687 0.103859 0.039329 0.401592 0.507361 0.762436 0 0 0 
0.031259 0.096452 0.040672 0.596985 0.364524 0.714655 0 0 0 
0.032153 0.089854 0.042522 0.527758 0.163437 0.833523 0 0 0 
-0.091725 0.14152 0.018509 -0.963881 -0.240664 0.114082 0 0 0 
0.042304 0.099115 -0.000157 0.917544 0.278942 -0.283379 0 0 0 
-0.061751 0.169908 -0.054262 0.986503 0.016082 0.162949 0 0 0 
0.031347 0.094692 0.041376 0.584547 0.314432 0.747955 0 0 0 
0.029876 0.081321 0.04385 0.521955 0.172377 0.835374 0 0 0 
0.018421 0.070432 0.05065 0.57081 0.002486 0.821078 0 0 0 
0.025013 0.045882 0.038825 0.530759 0.098996 0.841721 0 0 0 
-0.048815 0.121594 0.030495 0.949109 0.10378 0.297358 0 0 0 
0.046266 0.075969 0.005865 0.987792 0.0793 -0.134082 0 0 0 
0.058461 0.053343 0.014515 0.919017 -0.381875 0.097876 0 0 0 
-0.01112 0.0428 0.049945 0.300102 0.121235 0.946172 0 0 0 
0.039635 0.093608 0.031686 0.886998 0.113919 0.447501 0 0 0 
0.051747 0.057723 0.029603 0.448694 -0.11945 0.885667 0 0 0 
0.054226 0.062671 0.027949 0.589385 0.135808 0.796355 0 0 0 
0.060755 0.062803 0.009484 0.981963 0.098088 -0.161639 0 0 0 
0.035787 0.105132 0.030239 0.707854 0.355588 0.610328 0 0 0 
0.032059 0.076392 0.04228 0.639484 -0.22108 0.736331 0 0 0 
0.033164 0.056888 0.037852 0.650182 -0.410596 0.639277 0 0 0 
0.030691 0.099084 0.039861 0.632033 0.366235 0.68294 0 0 0 
0.035311 0.055316 0.03389 0.737042 -0.389266 0.552486 0 0 0 
0.036781 0.062351 0.036109 0.776942 -0.199685 0.597065 0 0 0 
0.015106 0.068162 0.052271 0.452848 -0.097556 0.886235 0 0 0 
-0.04958 0.043324 0.044211 0.250241 0.484473 0.838251 0 0 0 
0.027033 0.071774 0.043747 0.514086 -0.280014 0.810746 0 0 0 
0.017408 0.059538 0.049071 0.186401 -0.084163 0.978862 0 0 0 
-0.048238 0.130546 0.027298 0.849613 0.374804 0.371052 0 0 0 
0.039308 0.107935 0.013833 0.866964 0.496515 0.042956 0 0 0 
0.046207 0.078753 0.016361 0.998373 0.048835 0.029444 0 0 0 
0.007841 0.112783 0.040178 0.339318 0.250301 0.906759 0 0 0 
-0.036763 0.159724 -0.01257 -0.128794 -0.428798 -0.894172 0 0 0 
0.010483 0.051507 0.050691 0.406479 -0.555992 0.725015 0 0 0 
0.056648 0.051328 0.006532 0.862502 -0.444794 -0.241348 0 0 0 
-0.015839 0.160624 -0.011948 0.330843 -0.906579 -0.262027 0 0 0 
-0.028146 0.178225 -0.006256 0.668091 -0.088719 0.738771 0 0 0 
0.02722 0.053983 0.040347 0.513593 -0.488089 0.705686 0 0 0 
0.012033 0.062129 0.051869 0.478935 -0.319823 0.817517 0 0 0 
0.038844 0.091006 0.034052 0.85909 0.104435 0.501057 0 0 0 
0.038934 0.089226 0.034182 0.853688 0.061245 0.517172 0 0 0 
0.038997 0.087888 0.034222 0.830511 0.071004 0.552458 0 0 0 
0.037101 0.066422 0.036577 0.795417 0.003877 0.60605 0 0 0 
0.037204 0.078997 0.036841 0.706731 0.022487 0.707125 0 0 0 
0.029663 0.077293 0.044103 0.530672 -0.117155 0.839442 0 0 0 
-0.071727 0.129022 0.051575 0.337395 0.368538 0.866224 0 0 0 
0.029106 0.072242 0.042659 0.496693 -0.463834 0.73359 0 0 0 
-0.074513 0.097399 -0.01363 -0.468584 0.244068 -0.849035 0 0 0 
-0.072298 0.137452 -0.007307 -0.253424 0.086203 -0.963507 0 0 0 
0.035283 0.086679 0.0394 0.801129 -0.078048 0.593381 0 0 0 
0.007822 0.041765 0.045356 0.157509 0.137851 0.977849 0 0 0 
0.010305 0.042219 0.045047 0.0743 0.167595 0.983052 0 0 0 
0.045513 0.075442 0.002538 0.942263 -0.023971 -0.334016 0 0 0 
0.027408 0.07224 0.043704 0.436542 -0.330887 0.836627 0 0 0 
0.039162 0.084321 0.034436 0.782051 0.096251 0.615737 0 0 0 
0.060738 0.061417 0.009487 0.969932 -0.090221 -0.226036 0 0 0 
0.038942 0.077598 0.034642 0.802882 -0.082071 0.590461 0 0 0 
0.038767 0.072191 0.034347 0.786523 0.016204 0.617349 0 0 0 
0.026725 0.113177 0.034138 0.356925 0.528014 0.770588 0 0 0 
0.025605 0.064133 0.044565 0.447526 0.096711 0.889026 0 0 0 
0.025376 0.051034 0.039388 0.353849 -0.46724 0.810233 0 0 0 
0.037133 0.087954 0.036797 0.834911 -0.029203 0.549609 0 0 0 
-0.047452 0.129115 0.026677 0.902941 0.205605 0.377392 0 0 0 
-0.047548 0.128653 0.027117 0.890739 0.178338 0.418066 0 0 0 
-0.038345 0.038067 -0.028919 -0.403979 0.23152 -0.884986 0 0 0 
0.038076 0.101562 0.029428 0.802396 0.295803 0.518325 0 0 0 
0.02357 0.081365 0.04941 0.528811 0.122031 0.839921 0 0 0 
-0.016596 0.128309 0.017579 -0.298611 0.948557 0.105216 0 0 0 
0.049012 0.04771 0.026105 0.563941 -0.624313 0.540558 0 0 0 
-0.02554 0.161512 -0.003144 0.142028 0.875528 0.461822 0 0 0 
-0.064053 0.172034 -0.048909 0.812413 0.475022 0.338141 0 0 0 
-0.067043 0.17091 -0.03856 0.624053 0.758596 0.187324 0 0 0 
0.013267 0.037429 0.044441 0.161012 0.059385 0.985164 0 0 0 
0.041748 0.077434 0.029897 0.902658 -0.00864 0.430272 0 0 0 
0.036731 0.070891 0.036661 0.77441 -0.019698 0.632378 0 0 0 
0.032067 0.083124 0.042345 0.533555 0.097039 0.84018 0 0 0 
-0.031839 0.173225 -0.003425 0.779388 -0.260603 0.569772 0 0 0 
0.027978 0.059637 0.042683 0.721332 -0.277293 0.634656 0 0 0 
0.020525 0.042683 0.042279 0.60998 -0.071961 0.789142 0 0 0 
0.028195 0.056853 0.041207 0.567659 -0.341032 0.749307 0 0 0 
0.006972 0.123414 -0.010289 0.020059 0.83944 -0.543083 0 0 0 
-0.049655 0.143737 0.010101 0.986016 0.110297 0.124928 0 0 0 
-0.047217 0.13124 0.024073 0.809282 0.445429 0.382957 0 0 0 
-0.047345 0.130041 0.025611 0.866357 0.382438 0.321197 0 0 0 
0.031561 0.109629 0.03233 0.727302 0.388314 0.565901 0 0 0 
0.039038 0.067704 0.034112 0.808602 0.012877 0.588215 0 0 0 
0.009514 0.114156 0.039078 0.349375 0.353995 0.867539 0 0 0 
0.057706 0.061252 0.024164 0.815845 -0.077377 0.573071 0 0 0 
0.030819 0.046596 0.032542 0.720821 -0.468619 0.510699 0 0 0 
0.029907 0.10832 0.035237 0.676545 0.385068 0.627701 0 0 0 
0.034536 0.102524 0.033733 0.716325 0.413709 0.561893 0 0 0 
0.022881 0.062778 0.046473 0.600804 0.12822 0.789046 0 0 0 
0.037641 0.108919 0.022489 0.835692 0.517987 0.182505 0 0 0 
0.030024 0.106559 0.035978 0.647184 0.259059 0.716967 0 0 0 
0.043156 0.069166 0.02655 0.830509 -0.043213 0.555326 0 0 0 
0.060658 0.066032 0.01148 0.977192 0.165727 -0.132778 0 0 0 
0.023651 0.076402 0.04889 0.47878 -0.255697 0.839874 0 0 0 
0.04021 0.084285 0.033028 0.818393 0.069896 0.570393 0 0 0 
-0.024057 0.042477 0.053859 -0.08265 0.244006 0.966245 0 0 0 
-0.008264 0.130171 0.018643 -0.172134 0.981009 0.089393 0 0 0 
0.007673 0.091535 -0.031669 0.455207 0.404796 -0.793049 0 0 0 
0.042173 0.100503 0.000855 0.90562 0.318343 -0.280196 0 0 0 
0.046859 0.052111 0.031264 0.509757 -0.361377 0.78074 0 0 0 
0.02659 0.062816 0.044221 0.391734 0.012253 0.919997 0 0 0 
0.043391 0.071405 0.026287 0.894179 -0.042803 0.44566 0 0 0 
0.025336 0.062337 0.04475 0.378493 0.006151 0.925584 0 0 0 
0.024486 0.055924 0.043464 0.532272 -0.37757 0.757712 0 0 0 
0.028178 0.073163 0.043665 0.431103 -0.321269 0.84317 0 0 0 
0.031711 0.100361 0.037829 0.688399 0.433175 0.581779 0 0 0 
0.033818 0.105174 0.03268 0.710724 0.397078 0.58069 0 0 0 
-0.02125 0.173217 -0.014514 0.516358 0.159181 0.841449 0 0 0 
-0.089047 0.138259 0.011874 -0.923694 0.042295 -0.38079 0 0 0 
0.039484 0.107451 0.015497 0.864417 0.495164 0.087159 0 0 0 
0.059425 0.055747 0.012504 0.926993 -0.36962 -0.063751 0 0 0 
0.060616 0.065565 0.010812 0.962358 0.16297 -0.217504 0 0 0 
-0.03 0.17322 -0.006048 0.793213 -0.354251 0.495297 0 0 0 
-0.010433 0.128981 0.002473 -0.193148 0.943532 -0.26915 0 0 0 
-0.030344 0.171729 -0.006561 0.771859 -0.345646 0.533631 0 0 0 
0.035715 0.079045 0.03879 0.820289 -0.000821 0.571948 0 0 0 
-0.030631 0.169253 -0.007005 0.746902 0.082536 0.659792 0 0 0 
0.019316 0.079088 0.052015 0.606339 -0.00356 0.795198 0 0 0 
0.01772 0.068173 0.050782 0.471006 -0.271075 0.839447 0 0 0 
0.043309 0.073243 0.026804 0.926493 -0.069357 0.369865 0 0 0 
0.033951 0.100342 0.03581 0.637545 0.40816 0.653407 0 0 0 
0.040002 0.089605 0.032194 0.894623 0.13917 0.424595 0 0 0 
0.013127 0.056745 0.05106 0.658252 -0.016976 0.752606 0 0 0 
0.03392 0.105615 0.032234 0.724887 0.413927 0.550639 0 0 0 
0.031299 0.101661 0.037236 0.565284 0.454835 0.688171 0 0 0 
0.026049 0.049617 0.03859 0.455086 -0.19806 0.868141 0 0 0 
0.045823 0.088551 0.009501 0.996464 0.070318 0.045985 0 0 0 
0.04587 0.084349 0.013836 0.99497 0.074624 0.066825 0 0 0 
0.060977 0.063285 0.01249 0.996957 -0.001011 0.07795 0 0 0 
-0.045675 0.034631 0.040527 0.102173 -0.993549 0.049197 0 0 0 
-0.023817 0.03786 0.05421 0.061447 -0.014575 0.998004 0 0 0 
-0.022684 0.161519 -0.004286 0.224544 0.855281 0.466985 0 0 0 
-0.033259 0.164332 -0.003789 0.436155 0.409876 0.801106 0 0 0 
0.045286 0.078441 0.022601 0.951913 -0.028279 0.305061 0 0 0 
0.043187 0.070516 0.02658 0.891838 -0.075129 0.446072 0 0 0 
-0.035713 0.151565 -0.003588 0.408865 -0.894099 -0.182802 0 0 0 
0.057597 0.056173 0.022754 0.799094 -0.211318 0.562844 0 0 0 
0.057901 0.058958 0.023247 0.793349 -0.147338 0.590668 0 0 0 
0.034845 0.092036 0.039386 0.715717 0.214274 0.664708 0 0 0 
0.03288 0.109603 0.030711 0.724644 0.396868 0.563371 0 0 0 
0.026763 0.05156 0.039063 0.413553 -0.434529 0.800099 0 0 0 
0.027064 0.075002 0.045003 0.442135 -0.387013 0.809159 0 0 0 
0.027951 0.095114 0.043498 0.437327 0.400265 0.805316 0 0 0 
-0.024901 0.164383 -0.007516 0.298476 0.674586 0.675164 0 0 0 
0.048925 0.048706 0.02717 0.581324 -0.512657 0.631859 0 0 0 
0.059116 0.057122 0.007508 0.91119 -0.336463 -0.23775 0 0 0 
0.046253 0.080179 0.013842 0.992229 0.084968 0.090892 0 0 0 
0.012468 0.081121 0.053825 0.189176 0.3023 0.934252 0 0 0 
0.054253 0.058639 0.027955 0.70076 -0.138978 0.699729 0 0 0 
0.030285 0.075022 0.043224 0.532273 -0.26211 0.804974 0 0 0 
-0.031379 0.163379 -0.003985 0.245475 0.666497 0.703935 0 0 0 
-0.05079 0.150221 0.012973 0.840365 0.185656 0.509233 0 0 0 
-0.051182 0.151189 0.012989 0.768728 0.440065 0.464112 0 0 0 
-0.019539 0.104927 -0.022753 -0.04721 0.14781 -0.987888 0 0 0 
-0.067257 0.144581 -0.016885 0.204687 -0.943234 -0.261557 0 0 0 
-0.063161 0.148612 -0.019131 0.906709 -0.403238 -0.1236 0 0 0 
0.059088 0.061233 0.021726 0.931036 -0.022536 0.364232 0 0 0 
-0.062945 0.148152 -0.016205 0.894704 -0.413771 -0.168219 0 0 0 
0.037587 0.094581 0.034588 0.783964 0.367249 0.500529 0 0 0 
0.014582 0.047034 0.044262 0.562376 -0.359382 0.7447 0 0 0 
0.012479 0.06812 0.05374 0.438412 -0.069387 0.896092 0 0 0 
0.027923 0.089339 0.044599 0.677759 0.060435 0.732796 0 0 0 
0.050201 0.053063 0.029081 0.563986 -0.416205 0.713228 0 0 0 
0.01002 0.114276 0.038843 0.284587 0.348069 0.893229 0 0 0 
0.038279 0.091035 0.034973 0.839677 0.091268 0.535362 0 0 0 
-0.012108 0.165959 -0.014748 0.609283 0.537415 0.58306 0 0 0 
0.041897 0.092133 0.02786 0.892594 0.119309 0.434789 0 0 0 
0.026858 0.041288 0.032634 0.682302 -0.606901 0.407597 0 0 0 
0.046267 0.082511 0.008512 0.997312 0.071259 -0.017076 0 0 0 
0.002957 0.040892 0.046085 0.138441 -0.020276 0.990163 0 0 0 
0.027133 0.061017 0.043822 0.546528 -0.116296 0.829326 0 0 0 
0.034935 0.096406 0.037215 0.72773 0.342124 0.594441 0 0 0 
-0.050362 0.151663 0.011841 0.566137 0.198318 0.800099 0 0 0 
-0.020358 0.041289 0.053361 0.342207 0.016484 0.93948 0 0 0 
-0.020673 0.040815 0.053484 0.340897 0.015412 0.939974 0 0 0 
-0.022358 0.097758 0.044858 -0.054514 0.133816 0.989506 0 0 0 
-0.003271 0.102854 0.043916 -0.030581 -0.139156 0.989798 0 0 0 
0.046705 0.048757 0.029246 0.553873 -0.557956 0.617989 0 0 0 
0.047396 0.052107 0.030873 0.584574 -0.360131 0.727034 0 0 0 
0.012592 0.07579 0.054558 0.134895 -0.026571 0.990504 0 0 0 
0.039004 0.066349 0.03404 0.832852 -0.100494 0.544296 0 0 0 
0.03873 0.065452 0.034231 0.823036 -0.173614 0.540804 0 0 0 
-0.035199 0.164321 -0.002495 0.466796 0.142023 0.872886 0 0 0 
0.03392 0.078641 0.040888 0.731847 -0.12398 0.670096 0 0 0 
0.03025 0.051612 0.03708 0.482708 -0.417565 0.769826 0 0 0 
0.032173 0.070477 0.040636 0.534601 0.126322 0.83561 0 0 0 
0.03312 0.077294 0.041476 0.735059 -0.152913 0.660535 0 0 0 
0.041087 0.104715 0.012497 0.900984 0.431034 0.049359 0 0 0 
-0.049646 0.152621 0.011149 0.477066 0.245532 0.843873 0 0 0 
0.005165 0.107628 0.041709 0.269751 -0.055044 0.961356 0 0 0 
-0.019726 0.042243 0.053108 0.271932 0.081225 0.958882 0 0 0 
-0.051234 0.046973 0.018994 -0.851232 0.416303 -0.319524 0 0 0 
0.038237 0.085235 0.03544 0.751831 0.058989 0.656712 0 0 0 
0.039875 0.090934 0.032023 0.908849 0.153002 0.38805 0 0 0 
0.04259 0.047239 0.030904 0.468606 -0.577821 0.66823 0 0 0 
-0.026642 0.174693 -0.009989 0.730623 -0.288759 0.618715 0 0 0 
-0.027938 0.166324 -0.007804 0.421147 0.530001 0.736025 0 0 0 
0.023486 0.084464 0.048723 0.605826 0.313102 0.731398 0 0 0 
-0.002015 0.101781 0.044095 -0.199057 0.218402 0.955341 0 0 0 
0.030764 0.0516 0.036655 0.655162 -0.40979 0.634693 0 0 0 
0.034043 0.088068 0.041138 0.779506 0.02458 0.625913 0 0 0 
-0.029263 0.160599 -0.000887 -0.070789 0.822973 0.563653 0 0 0 
0.055476 0.051391 0.022216 0.671703 -0.546928 0.499684 0 0 0 
-0.049291 0.137562 0.005081 0.959841 0.199553 -0.19719 0 0 0 
-0.049189 0.147268 0.01058 0.759933 -0.309722 0.571466 0 0 0 
-0.048965 0.151169 0.010939 0.567215 0.062392 0.821203 0 0 0 
-0.049121 0.153107 0.010748 0.392629 0.241445 0.887438 0 0 0 
-0.029831 0.172227 -0.006983 0.772789 -0.345444 0.532414 0 0 0 
0.026344 0.040905 0.032961 0.713703 -0.595049 0.369519 0 0 0 
-0.005967 0.123898 0.034 -0.114528 0.808888 0.576701 0 0 0 
-0.014616 0.088825 -0.037811 0.006939 0.440364 -0.897793 0 0 0 
-0.026778 0.163273 -0.015627 -0.027832 -0.461156 -0.886882 0 0 0 
-0.018366 0.039973 0.052714 0.28828 -0.002114 0.957544 0 0 0 
-0.018723 0.042284 0.052794 0.322983 0.095617 0.941562 0 0 0 
-0.018527 0.043672 0.0525 0.32141 0.247607 0.913995 0 0 0 
0.058602 0.060295 0.022533 0.867145 -0.122324 0.482801 0 0 0 
-0.066638 0.162829 -0.057716 -0.727856 -0.146376 -0.669925 0 0 0 
0.035486 0.098571 0.035096 0.807753 0.358715 0.467823 0 0 0 
0.034877 0.101205 0.034231 0.724878 0.393391 0.565504 0 0 0 
-0.081472 0.073928 0.01587 -0.953938 -0.290116 0.076386 0 0 0 
0.038417 0.08657 0.035121 0.762485 0.026668 0.646456 0 0 0 
0.037772 0.074476 0.035843 0.827317 -0.125902 0.547444 0 0 0 
0.03768 0.077645 0.036349 0.790917 0.028177 0.611274 0 0 0 
-0.063339 0.149395 -0.023982 0.856185 -0.512985 -0.061585 0 0 0 
0.041342 0.067925 0.029225 0.883314 -0.138366 0.447897 0 0 0 
0.053942 0.057728 0.028085 0.700718 -0.139352 0.699696 0 0 0 
-0.010168 0.169233 -0.019209 0.700475 0.403988 0.588327 0 0 0 
-0.02748 0.161476 -0.00245 0.094762 0.878454 0.468336 0 0 0 
-0.04804 0.154077 0.009974 0.434824 0.238396 0.868387 0 0 0 
-0.034672 0.034518 0.037721 -0.053562 -0.99759 0.04411 0 0 0 
0.038086 0.072208 0.035125 0.732334 0.020522 0.680636 0 0 0 
0.04147 0.090827 0.029018 0.872128 0.083117 0.482167 0 0 0 
-0.03779 0.162703 -0.013226 -0.459847 -0.113565 -0.880706 0 0 0 
0.016872 0.063605 0.050095 0.544942 -0.189339 0.816817 0 0 0 
0.01386 0.090509 0.052384 0.610374 0.225715 0.759274 0 0 0 
0.014013 0.086495 0.052579 0.687358 -0.047577 0.724759 0 0 0 
0.023572 0.046783 0.039675 0.578031 0.108776 0.808732 0 0 0 
-0.05144 0.148832 0.015061 0.9429 0.077504 0.323932 0 0 0 
0.035906 0.102938 0.031587 0.738201 0.400203 0.543044 0 0 0 
0.03327 0.062852 0.039834 0.458977 -0.160808 0.873774 0 0 0 
0.047215 0.056356 0.031827 0.373814 0.023675 0.927202 0 0 0 
0.037363 0.059995 0.033982 0.847446 -0.347475 0.401369 0 0 0 
0.049511 0.055845 0.030448 0.515911 -0.116797 0.848643 0 0 0 
0.012973 0.062147 0.051475 0.353503 -0.456993 0.816207 0 0 0 
0.029462 0.099953 0.040423 0.563063 0.423836 0.709452 0 0 0 
-0.022073 0.164386 -0.008701 0.279512 0.684352 0.67345 0 0 0 
-0.077136 0.069425 0.005864 -0.714973 -0.662644 -0.22297 0 0 0 
-0.047343 0.152625 0.00979 0.553284 0.073217 0.829768 0 0 0 
-0.021284 0.122453 0.028523 -0.328967 0.861939 0.3858 0 0 0 
-0.018681 0.039497 0.052841 0.371848 0.069463 0.925691 0 0 0 
-0.016455 0.040033 0.051979 0.40905 -0.03188 0.911955 0 0 0 
-0.016493 0.042826 0.051932 0.325224 0.1045 0.939845 0 0 0 
0.015038 0.078563 0.054017 0.242543 0.152136 0.958137 0 0 0 
0.014699 0.077206 0.054113 0.358631 -0.02605 0.933116 0 0 0 
0.048073 0.054915 0.031283 0.526142 -0.188484 0.829246 0 0 0 
0.04401 0.075422 0.025428 0.938482 -0.051083 0.34153 0 0 0 
-0.039474 0.161684 -0.012166 -0.390867 -0.178 -0.903072 0 0 0 
-0.091589 0.115213 0.036649 -0.857882 -0.513819 -0.005334 0 0 0 
0.040348 0.078431 0.032553 0.824044 -0.062307 0.563089 0 0 0 
0.053898 0.051523 0.000895 0.743091 -0.450929 -0.494448 0 0 0 
0.036993 0.094604 0.035492 0.773108 0.321069 0.547009 0 0 0 
0.024982 0.107708 0.038596 0.31831 0.345841 0.882651 0 0 0 
0.012149 0.042788 0.044791 0.131222 0.13726 0.981805 0 0 0 
-0.056708 0.053045 0.00534 -0.942094 0.238177 0.236075 0 0 0 
0.014103 0.065432 0.052552 0.442256 -0.294902 0.84702 0 0 0 
0.012289 0.045489 0.044464 0.423498 -0.05559 0.90419 0 0 0 
-0.048316 0.145762 0.008433 0.687593 -0.41729 0.594209 0 0 0 
-0.061944 0.111987 0.036917 0.374367 0.260173 0.890033 0 0 0 
-0.062346 0.111459 0.037154 0.204323 0.095018 0.974281 0 0 0 
0.043874 0.078605 0.025897 0.922414 -0.052645 0.382597 0 0 0 
0.013419 0.048514 0.0461 0.476724 -0.542333 0.691816 0 0 0 
-0.01547 0.041474 0.051652 0.35182 -0.01721 0.93591 0 0 0 
0.045846 0.088554 0.008504 0.998361 0.051726 0.024495 0 0 0 
0.047555 0.047737 0.027518 0.529742 -0.620684 0.578035 0 0 0 
0.05355 0.054911 0.027479 0.663615 -0.351055 0.660587 0 0 0 
0.029312 0.042639 0.030894 0.663682 -0.519975 0.537728 0 0 0 
0.033903 0.085357 0.040905 0.760568 -0.180591 0.623636 0 0 0 
-0.012886 0.179148 -0.022875 0.720499 0.276258 0.636053 0 0 0 
0.028728 0.066853 0.042654 0.48093 0.169321 0.860254 0 0 0 
0.033177 0.06149 0.039675 0.548489 -0.154713 0.82172 0 0 0 
-0.031383 0.168756 -0.006328 0.628064 -0.019439 0.777919 0 0 0 
0.011332 0.051516 0.050161 0.528846 -0.503402 0.683307 0 0 0 
0.00899 0.062163 0.0545 0.476291 -0.353253 0.805207 0 0 0 
-0.028821 0.162908 -0.004395 0.22515 0.699857 0.67787 0 0 0 
0.053216 0.053506 0.026992 0.615722 -0.455106 0.643245 0 0 0 
0.019577 0.120219 0.033185 0.24222 0.653856 0.7168 0 0 0 
0.03479 0.110767 0.027307 0.737092 0.476826 0.478886 0 0 0 
0.03807 0.056883 0.031497 0.504439 -0.254429 0.825111 0 0 0 
-0.088136 0.088407 0.021778 -0.880099 -0.384809 0.278115 0 0 0 
0.015399 0.059474 0.049677 0.388242 -0.112533 0.914661 0 0 0 
0.015938 0.061305 0.049897 0.383177 -0.239151 0.892178 0 0 0 
-0.045634 0.154573 0.008187 0.563151 0.422038 0.710454 0 0 0 
-0.045904 0.156014 0.007795 0.737838 0.307074 0.601083 0 0 0 
-0.049419 0.139108 0.006072 0.971639 0.172876 -0.161345 0 0 0 
-0.07668 0.154442 -0.005297 -0.938196 0.330183 0.10377 0 0 0 
-0.074223 0.105454 -0.010434 -0.522789 0.331177 -0.785502 0 0 0 
-0.015848 0.038202 0.051627 0.301865 -0.0908 0.949017 0 0 0 
0.02082 0.087423 0.049201 0.073154 0.27081 0.959849 0 0 0 
0.027558 0.106993 0.037668 0.492362 0.159864 0.855584 0 0 0 
0.043827 0.074537 0.025753 0.935799 -0.083892 0.342407 0 0 0 
0.033607 0.083116 0.041049 0.744724 0.041532 0.666079 0 0 0 
0.0258 0.045876 0.038201 0.603773 -0.072705 0.793834 0 0 0 
0.032169 0.06913 0.040619 0.567722 -0.066964 0.820492 0 0 0 
0.040144 0.093572 0.030667 0.900325 0.171608 0.399958 0 0 0 
0.020705 0.07322 0.050466 0.474438 -0.253231 0.843079 0 0 0 
-0.011589 0.176195 -0.022776 0.708515 0.376973 0.596572 0 0 0 
0.017787 0.073137 0.051529 0.221154 -0.409211 0.885233 0 0 0 
-0.017557 0.168816 -0.014466 0.320796 0.52217 0.790208 0 0 0 
0.017821 0.08684 0.050052 0.401696 0.323084 0.856888 0 0 0 
-0.045258 0.148189 0.006872 0.66439 -0.453702 0.593919 0 0 0 
-0.045021 0.155539 0.007326 0.227736 0.557654 0.798222 0 0 0 
0.013445 0.09476 0.050228 0.267134 0.566235 0.779754 0 0 0 
-0.013653 0.03756 0.050965 0.292646 0.117893 0.948925 0 0 0 
0.058636 0.067799 0.020867 0.803027 0.379444 0.459531 0 0 0 
0.038325 0.08166 0.035554 0.696291 0.079267 0.713369 0 0 0 
0.038321 0.077624 0.035511 0.783363 0.006251 0.621534 0 0 0 
0.038454 0.07581 0.035096 0.821898 -0.068627 0.565485 0 0 0 
0.025595 0.072244 0.045202 0.78697 -0.255904 0.561419 0 0 0 
0.024234 0.043133 0.039447 0.732765 -0.251073 0.632469 0 0 0 
-0.037226 0.038319 -0.029344 -0.300097 0.197834 -0.933169 0 0 0 
0.037753 0.105099 0.02778 0.795252 0.379252 0.473014 0 0 0 
0.037533 0.089732 0.036233 0.812682 0.017627 0.582441 0 0 0 
0.017581 0.074985 0.052415 0.334665 -0.370482 0.866454 0 0 0 
-0.043694 0.15411 0.00748 0.4532 0.101508 0.885611 0 0 0 
-0.044667 0.15892 0.006663 0.652088 -0.057698 0.755944 0 0 0 
0.01791 0.077731 0.052913 0.513427 -0.004647 0.858121 0 0 0 
0.04432 0.092187 -0.000151 0.928882 0.250699 -0.272631 0 0 0 
0.042939 0.072883 -0.004126 0.934525 -0.083543 -0.345954 0 0 0 
0.033094 0.110486 0.029841 0.699829 0.397657 0.593388 0 0 0 
0.017814 0.079962 0.052784 0.410287 0.193565 0.891177 0 0 0 
0.025993 0.109646 0.037174 0.297615 0.517829 0.802046 0 0 0 
0.038176 0.068182 0.035226 0.777083 0.028484 0.628753 0 0 0 
0.031253 0.110959 0.031888 0.735395 0.34356 0.584089 0 0 0 
0.035142 0.052866 0.032426 0.676453 -0.386945 0.626645 0 0 0 
0.033027 0.065103 0.040063 0.403821 0.027305 0.91443 0 0 0 
0.016844 0.083013 0.051986 0.26831 0.383072 0.883892 0 0 0 
0.037836 0.082562 0.036021 0.762425 0.010708 0.646988 0 0 0 
0.014211 0.071758 0.05336 0.273426 -0.234984 0.932749 0 0 0 
0.037686 0.091061 0.035877 0.821182 0.09128 0.563318 0 0 0 
0.016231 0.08696 0.051103 0.610042 0.033421 0.791664 0 0 0 
0.054342 0.04972 0.003555 0.723804 -0.573935 -0.383024 0 0 0 
0.050601 0.048463 -3e-05 0.587709 -0.605896 -0.536179 0 0 0 
-0.043173 0.161791 0.005502 0.483437 0.071911 0.87242 0 0 0 
0.016448 0.089191 0.050845 0.66728 0.048532 0.743224 0 0 0 
-0.067652 0.137981 -0.008 0.013252 0.16755 -0.985775 0 0 0 
-0.011917 0.039738 0.050357 0.360169 -0.016189 0.932746 0 0 0 
0.040538 0.08781 0.031775 0.873283 0.185309 0.450596 0 0 0 
0.033361 0.072287 0.040022 0.466901 -0.05228 0.882763 0 0 0 
0.016926 0.041687 0.044077 0.255574 -0.13457 0.957378 0 0 0 
0.022899 0.060089 0.046481 0.71968 -0.081113 0.689552 0 0 0 
0.024863 0.084473 0.047788 0.433503 0.231697 0.870857 0 0 0 
0.035274 0.102952 0.03244 0.744819 0.396797 0.536468 0 0 0 
0.029825 0.044143 0.031661 0.675699 -0.498762 0.542832 0 0 0 
0.034742 0.06557 0.039038 0.584917 0.035991 0.810294 0 0 0 
-0.033929 0.168762 -0.002987 0.807208 -0.361554 0.466577 0 0 0 
0.012362 0.06352 0.052366 0.259224 -0.373761 0.890565 0 0 0 
-0.019407 0.036852 -0.018152 -0.116465 -0.500211 0.858035 0 0 0 
0.047838 0.05877 0.031363 0.421542 0.172594 0.890233 0 0 0 
0.029501 0.097323 0.041642 0.501649 0.338234 0.796207 0 0 0 
-0.028334 0.176697 -0.006506 0.77331 -0.264208 0.576356 0 0 0 
